# .PCD v0.7 - Point Cloud Data file format
VERSION 0.7
FIELDS x y z intensity
SIZE 4 4 4 4
TYPE F F F F
COUNT 1 1 1 1
WIDTH 1187
HEIGHT 1
VIEWPOINT 0 0 0 1 0 0 0
POINTS 1187
DATA ascii
1.5152916 17.961958 2.2079504 0.050980393
1.7018602 20.061686 1.7607919 0.05882353
1.717492 20.204939 1.0632886 0.019607844
1.8677198 21.907835 0.385782 0.027450981
0.49093708 5.9321694 -1.5832789 0.023529412
0.58235234 6.9734688 -1.6062135 0.027450981
0.69905752 8.3012257 -1.6111369 0.062745102
0.82930011 9.7590275 -1.5442234 0.031372551
1.0156069 11.868261 -1.4566 0.070588239
0 0 0 0
5.2950444 60.409904 -1.0512973 0.015686275
0.9364416 10.837996 2.9048083 0.070588239
0 0 0 0
1.5763495 18.00441 3.5051615 0.06666667
1.0233139 11.754682 1.8626308 0.011764706
1.6713773 19.004436 2.3370352 0.031372551
1.7718747 20.055546 1.7607685 0.027450981
1.7880061 20.198744 1.063265 0.015686275
1.9464234 21.925997 0.38619536 0.011764706
0.51164073 5.9303393 -1.5832858 0.023529412
0.60669363 6.971313 -1.6062216 0.027450981
0.72847515 8.3035431 -1.6121002 0.050980393
0.86336398 9.7559929 -1.5442349 0.039215688
1.0579319 11.874449 -1.4578314 0.082352944
1.2061 13.475296 -1.1788075 0.054901961
0 0 0 0
5.5186567 60.530369 -1.0537968 0.011764706
0 0 0 0
1.0374825 11.501245 2.6572988 0.015686275
1.7655176 19.367203 3.7721729 0.047058824
1.5900625 17.43561 2.7663913 0.14901961
1.7033762 18.62779 2.2913394 0.30588236
1.7136754 18.670412 1.6394584 0.054901961
1.8575826 20.182358 1.062717 0.062745102
0.53189105 5.9236279 -1.5819999 0.023529412
0.63102347 6.9690728 -1.6062297 0.027450981
0.75791335 8.3057566 -1.6130635 0.05882353
0.89695323 9.7479229 -1.5434645 0.050980393
1.0998396 11.875544 -1.458454 0.090196081
1.2554822 13.495718 -1.1809995 0.043137256
0 0 0 0
0 0 0 0
1.024032 10.956047 2.9384201 0.011764706
1.0841187 11.565376 2.6730273 0.12941177
1.1794459 12.540242 2.4408116 0.027450981
1.7358702 18.314737 2.9070959 0.035294119
1.7636356 18.572256 2.285228 0.094117649
1.7812359 18.689028 1.6416181 0.043137256
5.6217151 58.384674 3.0783296 0.015686275
0.55256456 5.9216552 -1.5820068 0.023529412
0.65487742 6.9618979 -1.6051136 0.023529412
0.78738052 8.3078661 -1.6140267 0.06666667
0.93049181 9.7397375 -1.5426942 0.035294119
1.1412901 11.871552 -1.458468 0.090196081
1.2899228 13.362288 -1.1696979 0.039215688
0 0 0 0
0 0 0 0
1.121603 11.532356 2.6662672 0.015686275
1.2237036 12.540857 2.4417508 0.035294119
1.9166808 19.48299 3.0939248 0.05882353
1.8939372 19.222704 2.3661993 0.082352944
1.6101023 16.348539 1.4361132 0.0078431377
1.9944177 20.164127 1.0624089 0.086274512
0.57275081 5.9148045 -1.5807209 0.023529412
0.67917782 6.9594898 -1.6051217 0.023529412
0.81686747 8.3098707 -1.61499 0.05882353
0.96228939 9.7316093 -1.5419234 0.035294119
1.1806532 11.867625 -1.4584811 0.090196081
1.3392615 13.407416 -1.1740657 0.050980393
0 0 0 0
0 0 0 0
0 0 0 0
0 0 0 0
1.8861283 18.581221 3.62238 0.090196081
1.2237076 12.112509 1.9219931 0.027450981
1.3225825 13.030402 1.6031419 0.011764706
1.6661326 16.332832 1.4352216 0.0078431377
2.0509133 20.022869 1.0553068 0.043137256
0.59236342 5.912796 -1.5807276 0.023529412
0.70225424 6.9571228 -1.6051295 0.023529412
0.84493053 8.3119211 -1.6159528 0.062745102
0.99574238 9.7231979 -1.541153 0.035294119
1.2194808 11.838675 -1.4554508 0.11372549
1.376688 13.313413 -1.1662462 0.05882353
0 0 0 0
0 0 0 0
1.3016179 12.50083 3.357548 0.0078431377
1.1928829 11.456482 2.6504996 0.054901961
1.2810391 12.26853 2.390224 0.031372551
1.2659863 12.108088 1.921979 0.015686275
1.306355 12.468237 1.5343149 0.019607844
3.6944649 34.76577 3.0594001 0.023529412
2.1202583 20.010546 1.055021 0.011764706
0.61300194 5.9106121 -1.5807345 0.023529412
0.72601235 6.9497056 -1.6040133 0.027450981
0.87394261 8.3088408 -1.6159626 0.043137256
1.0296749 9.7195835 -1.5411644 0.035294119
1.2656169 11.878671 -1.4609444 0.10980392
0 0 0 0
0 0 0 0
0 0 0 0
1.2291563 11.418272 2.6426158 0.015686275
1.3077031 12.09861 1.9211829 0.019607844
1.3699704 12.646044 1.5568315 0.40784314
3.8611727 35.163506 3.0955679 0.011764706
3.8292048 34.822037 1.8377969 0.0078431377
0.63362962 5.9083562 -1.5807414 0.023529412
0.75026983 6.9470487 -1.6040215 0.027450981
0.90348262 8.3105373 -1.6169258 0.05882353
1.0630511 9.7109413 -1.5403942 0.039215688
1.3098382 11.89876 -1.4640027 0.074509807
1.4673798 13.283518 -1.1645361 0.062745102
4.2478209 38.011593 -1.9919909 0.047058824
0 0 0 0
0 0 0 0
2.2276063 19.857512 3.8759861 0.46666667
1.3521601 12.113523 1.9242958 0.050980393
1.3732055 12.281141 1.5123633 0.039215688
2.1478827 19.0411 1.6755372 0.035294119
0.65370268 5.9012299 -1.5794556 0.023529412
0.77451414 6.9443073 -1.6040297 0.023529412
0.93304992 8.3121281 -1.6178892 0.062745102
1.0975062 9.711998 -1.5411873 0.039215688
1.3547789 11.923615 -1.4676701 0.062745102
1.4914192 13.085263 -1.1475745 0.06666667
4.3695493 37.90221 -1.9870892 0.05882353
0 0 0 0
0 0 0 0
1.3105395 11.423779 2.645962 0.031372551
0 0 0 0
2.196223 18.960997 3.0164165 0.062745102
1.4241508 12.345203 1.520874 0.039215688
2.2178302 19.063089 1.6781322 0.019607844
0.67429739 5.8988323 -1.5794625 0.023529412
0.7981801 6.9366431 -1.6029136 0.027450981
0.96206212 8.3087406 -1.6178989 0.062745102
1.1314043 9.7080269 -1.5411986 0.047058824
1.3952225 11.908877 -1.4664663 0.06666667
1.511727 12.867221 -1.1288713 0.070588239
4.4917703 37.802364 -1.982708 0.06666667
0 0 0 0
1.4583384 12.351925 3.3225601 0.011764706
1.3527397 11.438408 2.6504457 0.070588239
2.3573885 19.768234 3.861635 0.027450981
2.2558916 18.899208 3.0077946 0.06666667
1.466051 12.330227 1.5196418 0.023529412
2.2666917 18.93688 1.6676413 0.050980393
0.69488668 5.8963623 -1.5794696 0.023529412
0.82239145 6.9337344 -1.6029217 0.027450981
0.99165243 8.3101244 -1.6188623 0.062745102
1.1635927 9.7041464 -1.5412096 0.043137256
1.4383256 11.933665 -1.4701329 0.070588239
1.5859064 13.119148 -1.1515225 0.050980393
4.6139579 37.707077 -1.978587 0.070588239
0 0 0 0
1.5038184 12.365858 3.3277202 0.0078431377
1.390667 11.433787 2.6504328 0.019607844
2.4205229 19.740751 3.8577983 0.047058824
1.5060216 12.300333 1.5165825 0.023529412
2.3352365 18.948545 1.6693636 0.12941177
4.4077401 35.558403 1.8795766 0.011764706
2.7201502 21.983789 0.38839731 0.0078431377
0.71443748 5.8939495 -1.5794761 0.023529412
0.84477639 6.9260588 -1.6018052 0.027450981
1.0198166 8.3115845 -1.6198252 0.05882353
1.1980791 9.7048454 -1.5420028 0.047058824
1.4843118 11.962959 -1.4744093 0.06666667
1.6379288 13.162871 -1.1558913 0.043137256
4.7377243 37.681587 -1.9781085 0.06666667
0 0 0 0
1.4399152 11.517194 3.1000166 0.035294119
0 0 0 0
1.4506596 11.571787 2.259491 0.015686275
1.8987018 15.071943 2.3995464 0.023529412
1.5499474 12.319814 1.5196134 0.054901961
2.4140167 19.039015 1.6780659 0.094117649
4.5622869 35.780449 1.8921165 0.035294119
2.8013315 22.008793 0.38898531 0.062745102
0.73500633 5.8913398 -1.579483 0.023529412
0.86894691 6.9229875 -1.6018134 0.023529412
1.0494541 8.3127604 -1.6207887 0.06666667
1.2319463 9.7005243 -1.5420142 0.043137256
1.5222412 11.928095 -1.4707701 0.062745102
1.6774642 13.107597 -1.1515535 0.05882353
4.9007287 37.907372 -1.9909109 0.047058824
0 0 0 0
1.4951099 11.626963 3.1310515 0.047058824
1.4515219 11.278723 2.6166761 0.027450981
1.4935966 11.586043 2.2632918 0.05882353
1.9551486 15.094528 2.4042189 0.05882353
1.5903656 12.294567 1.5171632 0.035294119
4.484766 34.270329 3.0242178 0.06666667
4.693686 35.813728 1.8946954 0.035294119
2.8820674 22.028538 0.38948548 0.086274512
0.75493658 5.8838696 -1.5781972 0.023529412
0.89311016 6.9198322 -1.6018215 0.027450981
1.079108 8.3138332 -1.6217521 0.062745102
1.2651531 9.6911888 -1.5412439 0.039215688
1.5612485 11.902952 -1.4683486 0.06666667
1.7080756 12.988023 -1.1415563 0.090196081
0 0 0 0
0 0 0 0
0 0 0 0
1.4857037 11.234883 2.6076679 0.043137256
2.5552099 19.179007 3.75283 0.0078431377
3.0009942 22.468288 3.5830693 0.015686275
2.5430717 19.041756 2.3531885 0.015686275
2.5348985 18.957825 1.6723514 0.10588235
2.7641089 20.631664 1.0912691 0.10980392
2.9401572 21.879555 0.38700384 0.015686275
0.77547312 5.8811183 -1.5782043 0.023529412
0.91725856 6.9165926 -1.6018298 0.027450981
1.1087869 8.3147984 -1.6227156 0.062745102
1.2972851 9.6868639 -1.5412549 0.031372551
1.598701 11.882881 -1.4665352 0.070588239
1.753835 13.001953 -1.1433122 0.050980393
0 0 0 0
5.9571338 43.592785 -0.76322919 0.011764706
0 0 0 0
1.5911849 11.711605 2.2899663 0.015686275
1.7224709 12.649305 2.0156605 0.1254902
2.8277357 20.610723 2.5486257 0.098039217
2.5969665 18.91918 1.6697115 0.12941177
2.8251481 20.542681 1.0870509 0.10588235
3.0065145 21.825043 0.38618994 0.11764706
0.7949729 5.878438 -1.5782109 0.023529412
0.94019145 6.9134364 -1.6018376 0.023529412
1.137033 8.3158617 -1.6236787 0.06666667
1.3304052 9.6773062 -1.5404847 0.027450981
1.6381103 11.862403 -1.4647225 0.090196081
0 0 0 0
6.0258217 43.0331 -0.75381339 0.0078431377
1.5655395 11.261611 3.0365732 0.011764706
1.5703171 11.282252 2.6211336 0.019607844
1.6341226 11.720484 2.2928133 0.098039217
1.772149 12.682259 2.0218995 0.0078431377
2.8960719 20.601162 2.5486023 0.086274512
2.6636879 18.914854 1.6701251 0.050980393
2.8947256 20.517788 1.0862403 0.05882353
3.0742331 21.754946 0.38511178 0.10588235
0.81548721 5.8755474 -1.5782179 0.023529412
0.96432096 6.9100323 -1.6018457 0.023529412
1.1667519 8.3166199 -1.6246423 0.05882353
1.36348 9.667635 -1.5397145 0.027450981
1.6766914 11.836884 -1.4623009 0.062745102
1.8374776 12.939929 -1.1389896 0.050980393
0 0 0 0
6.1781487 43.026566 -0.75412506 0.031372551
1.5958631 11.193862 3.0197423 0.043137256
1.6020197 11.223589 2.608753 0.1254902
1.6539094 11.568908 2.2641914 0.015686275
1.8157042 12.671032 2.0211027 0.019607844
1.9972492 13.90662 1.7198684 0.0078431377
4.9461021 34.131004 3.0175145 0.039215688
2.9893777 20.66559 1.0946029 0.054901961
3.1710792 21.887461 0.38762864 0.054901961
0.8359943 5.8725848 -1.5782249 0.023529412
0.98843473 6.9065437 -1.601854 0.023529412
1.1964853 8.3172722 -1.6256056 0.062745102
1.3964986 9.6578512 -1.5389442 0.027450981
1.7165527 11.821058 -1.4610972 0.06666667
1.8717519 12.859439 -1.1324745 0.047058824
0 0 0 0
6.297616 42.796947 -0.75052875 0.035294119
1.6342255 11.183371 3.0184352 0.12941177
1.6333258 11.164841 2.5963721 0.047058824
2.5227823 17.124413 2.7347977 0.0078431377
2.0472395 13.909306 1.7210697 0.035294119
3.1931674 21.560854 1.9060594 0.38039216
3.0541191 20.60557 1.0919574 0.090196081
0.85648793 5.8695512 -1.5782318 0.023529412
1.0118176 6.8981528 -1.6007378 0.023529412
1.2262425 8.3178186 -1.6265692 0.06666667
1.4294708 9.647953 -1.5381738 0.023529412
1.7511548 11.770748 -1.4556308 0.090196081
1.9285142 12.931552 -1.1394557 0.050980393
6.4365115 42.705418 -0.74936378 0.062745102
1.7109202 11.425829 3.0856917 0.05882353
2.8884382 19.146187 3.7555783 0.035294119
2.6055753 17.266779 2.7590103 0.015686275
2.4553392 16.261866 2.0139272 0.054901961
3.2353215 21.332851 1.8868417 0.039215688
3.1373525 20.668743 1.0958641 0.062745102
3.0984471 20.39201 0.36145106 0.047058824
0.87824494 5.8664703 -1.5782845 0.023529412
1.0371642 6.8945236 -1.6007963 0.027450981
1.2572842 8.318284 -1.6275895 0.062745102
1.4636592 9.637969 -1.5374664 0.027450981
1.7950075 11.77432 -1.4569352 0.10588235
1.9551392 12.796701 -1.1282284 0.050980393
0 0 0 0
6.5722294 42.588783 -0.74797684 0.050980393
1.7571703 11.453179 3.0946627 0.047058824
2.1060188 13.685318 3.1876454 0.062745102
2.9586816 19.150528 3.7583103 0.078431375
2.0331144 13.187911 2.1069667 0.011764706
3.3086665 21.306641 1.8853925 0.023529412
3.2292235 20.77603 1.1020168 0.054901961
3.1669645 20.356337 0.36087772 0.078431375
0.89871997 5.8632927 -1.5782911 0.023529412
1.0604674 6.885973 -1.5996797 0.023529412
1.2878408 8.3234663 -1.6295063 0.06666667
1.4965223 9.6278477 -1.5366954 0.039215688
1.8399686 11.792417 -1.4599932 0.090196081
2.0176806 12.902883 -1.1382571 0.047058824
0 0 0 0
6.7404146 42.688946 -0.75019705 0.027450981
1.7539514 11.175018 3.0209138 0.074509807
2.1384814 13.58158 3.1651444 0.047058824
1.7647943 11.219674 2.2001772 0.027450981
3.5525393 22.427444 3.5890181 0.05882353
3.2024326 20.209003 2.5063586 0.062745102
3.3295515 20.960432 1.8557101 0.035294119
3.4366374 21.607656 1.1468045 0.023529412
0.91841543 5.8552756 -1.5770048 0.019607844
1.0845001 6.882153 -1.5996875 0.023529412
1.3176699 8.3236895 -1.6304693 0.062745102
1.529338 9.6176138 -1.5359244 0.035294119
1.8842876 11.805445 -1.4624425 0.098039217
2.0460191 12.792424 -1.1291281 0.050980393
0 0 0 0
6.9013867 42.739105 -0.75154871 0.015686275
1.7952772 11.183059 3.0247819 0.082352944
1.8614099 11.578304 2.698559 0.027450981
1.7850237 11.097106 2.1772795 0.039215688
1.867838 11.593994 1.8536741 0.019607844
2.220098 13.741962 1.7038757 0.0078431377
3.4709942 21.366446 1.8927588 0.047058824
3.4781888 21.388494 1.135774 0.25882354
3.5934103 22.070179 0.39167744 0.047058824
0.93885112 5.8519583 -1.5770115 0.023529412
1.1077263 6.8734436 -1.5985711 0.023529412
1.3475119 8.3238077 -1.6314325 0.062745102
1.5628986 9.6121407 -1.5359354 0.027450981
1.9335608 11.847686 -1.4685458 0.10588235
2.1117697 12.912904 -1.1404635 0.039215688
0 0 0 0
7.0480704 42.699886 -0.7513364 0.023529412
1.8350992 11.181417 3.0260627 0.035294119
2.1733527 13.205725 3.0807943 0.054901961
1.8132844 11.027795 2.164871 0.05882353
3.35376 20.268257 3.2465961 0.043137256
2.2680514 13.734057 1.70386 0.019607844
3.6087475 21.73242 1.9263175 0.11372549
3.1444249 18.933466 1.005777 0.031372551
3.6250489 21.786242 0.3868331 0.031372551
0.95927197 5.8485699 -1.577018 0.023529412
1.1317152 6.8694587 -1.5985788 0.023529412
1.3773756 8.3238182 -1.6323956 0.05882353
1.5956252 9.6016817 -1.5351645 0.027450981
1.9707843 11.816319 -1.4655143 0.090196081
2.1443956 12.831706 -1.1339467 0.047058824
0 0 0 0
7.8182297 46.347221 -0.81612718 0.031372551
1.8700804 11.151065 3.0195823 0.019607844
1.8525046 11.036528 2.5748646 0.031372551
1.8830192 11.205201 2.2010927 0.031372551
2.1557727 12.797676 2.0490637 0.062745102
2.1168942 12.556705 1.5583329 0.050980393
3.6711781 21.64106 1.9193146 0.027450981
3.2205896 18.981363 1.0088999 0.0078431377
3.6960273 21.743814 0.38628268 0.023529412
0.9788689 5.8403497 -1.5757318 0.023529412
1.1548668 6.8605886 -1.5974621 0.023529412
1.4072512 8.3237209 -1.6333587 0.054901961
1.6291349 9.5959768 -1.5351753 0.031372551
2.0120168 11.809294 -1.4655277 0.10196079
2.1688733 12.706259 -1.1235111 0.050980393
0 0 0 0
7.9850569 46.34914 -0.81670123 0.031372551
1.8851924 10.996321 2.5669827 0.10196079
1.9204423 11.188817 2.199173 0.039215688
2.1024022 12.225582 1.9583768 0.1254902
2.156461 12.524721 1.5552744 0.062745102
2.240459 12.981838 1.1508306 0.011764706
3.3262899 19.196199 1.0209318 0.019607844
3.7727599 21.735632 0.3863456 0.062745102
0.99925208 5.8368211 -1.5757383 0.023529412
1.1788069 6.8564405 -1.5974699 0.023529412
1.437148 8.3235168 -1.6343218 0.047058824
1.6617655 9.5852928 -1.5344044 0.031372551
2.0523713 11.797234 -1.4649321 0.078431375
2.1890495 12.561177 -1.1113335 0.043137256
0 0 0 0
3.7731297 21.517372 -0.37888247 0.035294119
1.9125748 10.937843 2.9652262 0.047058824
1.9176283 10.956019 2.5591004 0.054901961
2.0476453 11.668613 1.8700362 0.0078431377
2.1941023 12.482839 1.5509984 0.031372551
2.2831428 12.959155 1.1495075 0.10980392
3.4256449 19.366287 1.030605 0.05882353
3.8801789 21.899437 0.38947475 0.035294119
1.0196198 5.8332224 -1.575745 0.023529412
1.2027358 6.8522077 -1.5974777 0.023529412
1.4670606 8.323204 -1.635285 0.050980393
1.6952176 9.5793571 -1.5344152 0.035294119
2.0944188 11.794807 -1.4655545 0.074509807
2.2416828 12.60241 -1.115702 0.050980393
6.7210155 37.509762 -1.9857227 0.10980392
3.8402548 21.459713 -0.37812468 0.086274512
2.004765 11.230472 3.0467093 0.035294119
1.9922239 11.150554 2.6063061 0.062745102
2.7073081 15.09695 2.9734087 0.0078431377
2.0039771 11.194796 1.7949847 0.031372551
3.6090591 20.049175 2.4952624 0.039215688
2.3310373 12.965735 1.1508011 0.035294119
3.6859174 20.415302 1.0871791 0.14901961
3.959276 21.900446 0.3897126 0.05882353
1.0417078 5.8390555 -1.5783376 0.015686275
1.2266463 6.8478918 -1.5974855 0.023529412
1.4969845 8.3227863 -1.6362482 0.047058824
1.7286438 9.5733061 -1.5344262 0.027450981
2.1373615 11.797112 -1.4667859 0.062745102
2.2847667 12.589535 -1.1152811 0.05882353
6.7825794 37.107822 -1.9657092 0.12941177
3.9025002 21.377264 -0.3769322 0.023529412
2.3549757 12.901903 3.0188866 0.039215688
2.3631644 12.934529 2.5481224 0.023529412
2.3262606 12.711086 1.5814106 0.074509807
3.6685135 19.941734 1.7726824 0.090196081
3.552582 19.297569 1.0282027 0.090196081
3.8316143 20.785343 0.37006608 0.05882353
1.0638459 5.8448057 -1.58093 0.047058824
1.2505451 6.843493 -1.5974933 0.023529412
1.5278255 8.3270855 -1.6381652 0.043137256
1.7620537 9.5671387 -1.5344371 0.031372551
2.1776218 11.784626 -1.4661903 0.10980392
2.3350971 12.615684 -1.1183436 0.05882353
6.8570004 36.789352 -1.9501228 0.10588235
8.1725292 43.780777 -0.77353382 0.035294119
2.0190039 10.874279 2.9535465 0.11372549
2.4009025 12.898321 3.0199962 0.05882353
2.401053 12.887541 2.5404794 0.1254902
2.4104218 12.890265 1.1455383 0.05882353
3.6208546 19.289883 1.0284427 0.027450981
1.0851423 5.8457265 -1.5822296 0.062745102
1.2744286 6.8390098 -1.5975012 0.023529412
1.5577962 8.3264484 -1.6391284 0.043137256
1.7954419 9.560853 -1.534448 0.031372551
2.2187421 11.776877 -1.4662038 0.086274512
4.0319734 21.246225 -0.3751553 0.0078431377
2.0541503 10.862713 2.9522414 0.054901961
2.4101932 12.703172 2.9761367 0.039215688
2.4386356 12.840445 2.5328369 0.082352944
2.4372795 12.822044 2.0607009 0.062745102
2.4271057 12.757753 1.589296 0.054901961
1.1055435 5.8418269 -1.5822363 0.043137256
1.2973691 6.8296609 -1.5963845 0.023529412
1.5877857 8.3257036 -1.6400918 0.043137256
1.8262008 9.5499268 -1.5336767 0.043137256
2.2540116 11.749895 -1.4637806 0.070588239
2.4180772 12.584678 -1.1170653 0.05882353
6.7919364 35.083679 -1.8621624 0.0078431377
2.4434206 12.67837 -0.22364008 0.14901961
2.471355 12.803868 3.4838827 0.0078431377
2.4653525 12.761992 2.9918621 0.054901961
2.4840245 12.846672 2.5356834 0.054901961
2.469383 12.760505 2.0520892 0.047058824
2.4782953 12.783223 1.5935429 0.043137256
2.4598515 12.677888 1.1280657 0.062745102
2.4746914 12.742708 0.67968118 0.1254902
2.4692395 12.703861 0.22645283 0.12941177
1.1230475 5.8285785 -1.5796568 0.039215688
1.3200114 6.8252487 -1.5963919 0.023529412
1.6163348 8.3251352 -1.6410543 0.047058824
1.8595234 9.5434189 -1.5336877 0.031372551
2.2969375 11.751616 -1.4650121 0.10588235
2.4591007 12.561425 -1.1157732 0.070588239
2.4762111 12.635748 -0.66966516 0.17254902
2.4825418 12.655413 -0.22339304 0.15686275
2.1770089 11.075886 2.5972493 0.011764706
2.2266908 11.316566 2.2343638 0.027450981
2.5187235 12.775955 2.0559826 0.027450981
2.5226126 12.784601 1.5947467 0.043137256
2.511878 12.708231 1.1315398 0.086274512
2.5133009 12.704537 0.67809457 0.086274512
2.5096588 12.675481 0.22608796 0.12156863
1.1424417 5.8198109 -1.5783706 0.043137256
1.3428746 6.8157463 -1.5952753 0.023529412
1.6463476 8.3241796 -1.6420177 0.035294119
1.8918566 9.5319519 -1.5329167 0.027450981
2.3438063 11.772646 -1.4686798 0.06666667
2.4999855 12.538041 -1.1144813 0.12156863
2.5212924 12.631847 -0.66994017 0.1882353
2.5296688 12.661299 -0.22366843 0.15686275
0 0 0 0
2.5621195 12.78253 3.0008264 0.027450981
2.2467182 11.212437 2.2152808 0.05882353
2.5611813 12.723719 1.1337057 0.047058824
2.5596254 12.7054 0.67860395 0.070588239
2.5518954 12.656773 0.22589828 0.054901961
1.1627524 5.8157115 -1.5783772 0.043137256
1.366657 6.8109422 -1.5952832 0.023529412
1.6753976 8.3183069 -1.6420273 0.039215688
1.9241273 9.5203762 -1.5321457 0.027450981
2.3888674 11.783765 -1.4711295 0.070588239
2.5447392 12.534042 -1.1149311 0.12941177
2.5653682 12.622895 -0.66995466 0.17254902
2.574852 12.657215 -0.22376993 0.12156863
2.2046545 10.82796 2.9508979 0.070588239
2.3014071 11.289333 2.6511855 0.38039216
2.3086143 11.315023 2.2371981 0.047058824
2.4955292 12.202715 1.5240989 0.019607844
2.6146545 12.75853 1.1376158 0.043137256
1.1820654 5.8068123 -1.577091 0.039215688
1.3894368 6.8012843 -1.5941665 0.023529412
1.7054243 8.3171368 -1.6429906 0.031372551
1.9563458 9.5086908 -1.5313748 0.027450981
2.4340353 11.794714 -1.4735793 0.06666667
2.5925367 12.544514 -1.1166874 0.12156863
2.6114578 12.623566 -0.67049021 0.12941177
2.2325535 10.772852 2.9379499 0.054901961
2.2968769 11.071341 2.6017077 0.011764706
0 0 0 0
3.1784332 15.257196 2.4615908 0.027450981
2.5381145 12.193857 1.5240848 0.043137256
4.5696683 21.8193 1.1682059 0.019607844
4.0782132 19.467672 0.34809902 0.035294119
1.2023304 5.8025751 -1.5770977 0.043137256
1.413172 6.7963166 -1.5941744 0.023529412
1.7354592 8.3158607 -1.6439539 0.027450981
1.9874839 9.4920645 -1.529822 0.027450981
2.4793022 11.80549 -1.476029 0.086274512
2.6425116 12.564548 -1.1193149 0.12941177
6.9213967 32.718746 -1.7427852 0.05882353
4.3819957 20.732019 -0.36773387 0.023529412
2.642168 12.51279 3.4165454 0.023529412
3.2784564 15.489941 3.6460667 0.031372551
3.293505 15.535727 2.5084691 0.023529412
3.1381955 14.795979 1.8515884 0.015686275
2.7192905 12.812881 1.1441274 0.0078431377
4.6217623 21.690844 1.1621553 0.0078431377
7.0666733 33.086803 0.59225786 0.011764706
1.2215642 5.7935448 -1.5758113 0.043137256
1.4368862 6.7912674 -1.5941823 0.023529412
1.7644794 8.3096762 -1.6439635 0.023529412
2.0195644 9.4801664 -1.5290511 0.027450981
2.5236356 11.811242 -1.4778699 0.094117649
2.6979079 12.608731 -1.1241198 0.070588239
7.0102715 32.577171 -1.7365704 0.10196079
4.4627886 20.755615 -0.36845359 0.098039217
2.3369789 10.88348 2.5612118 0.039215688
3.7614377 17.444281 3.4604597 0.023529412
3.0659878 14.225816 2.2982025 0.0078431377
3.1835105 14.755763 1.8479189 0.015686275
4.7226615 21.807425 1.9508275 0.035294119
4.0856733 18.864283 1.0112392 0.078431375
4.3970704 20.278738 0.363112 0.062745102
1.2417827 5.7891693 -1.5758181 0.043137256
1.4605861 6.7861338 -1.5941901 0.023529412
1.7945215 8.3081865 -1.6449269 0.027450981
2.0515914 9.4681578 -1.52828 0.031372551
2.5690951 11.821677 -1.4803197 0.094117649
2.7589731 12.677009 -1.1311022 0.062745102
7.1111073 32.4939 -1.7334818 0.050980393
4.512692 20.637295 -0.36665094 0.050980393
2.7564631 12.616536 3.4501481 0.32156864
2.3938289 10.960826 2.5814342 0.054901961
3.3266468 15.183002 3.0132651 0.015686275
3.1220174 14.243889 2.3028755 0.023529412
4.0558224 18.461405 2.3148189 0.05882353
4.7869291 21.737236 1.9460056 0.070588239
4.1385536 18.79133 1.0080739 0.047058824
4.4343061 20.111887 0.36037484 0.082352944
1.2619855 5.7847238 -1.5758247 0.043137256
1.4832084 6.7761626 -1.5930735 0.023529412
1.8235145 8.301795 -1.6449366 0.023529412
2.0846272 9.4608641 -1.528291 0.039215688
2.6135862 11.827094 -1.4821606 0.078431375
2.832478 12.79849 -1.1428756 0.082352944
7.1907663 32.317734 -1.7254428 0.10588235
4.5694413 20.553038 -0.365457 0.027450981
2.7952113 12.583201 3.443666 0.015686275
2.4416583 10.995121 2.5915391 0.1254902
2.5003817 11.248705 2.2323658 0.05882353
2.6258323 11.79935 1.9081609 0.039215688
4.0952344 18.335691 2.3007965 0.094117649
3.3876503 15.159838 1.3573118 0.027450981
4.205215 18.781569 1.0083141 0.062745102
4.3232703 19.291489 0.34590831 0.054901961
1.2821698 5.7802076 -1.5758314 0.043137256
1.5068555 6.7708683 -1.5930812 0.023529412
1.8535664 8.3000908 -1.6458999 0.027450981
2.1165531 9.448638 -1.5275202 0.054901961
2.6548584 11.817822 -1.4821743 0.082352944
2.8628216 12.725299 -1.1372288 0.05882353
7.2726145 32.15601 -1.7181852 0.11764706
7.6670241 33.865673 -0.60331768 0.10196079
0 0 0 0
2.5070651 11.105219 2.6196306 0.047058824
2.5112841 11.115411 2.2075629 0.019607844
2.6505361 11.717816 1.8964236 0.062745102
3.4107265 15.040739 1.888045 0.074509807
4.2573981 18.708292 1.005149 0.10980392
4.3939362 19.290825 0.34614855 0.062745102
1.3023411 5.7756214 -1.5758381 0.043137256
1.5293947 6.7607422 -1.5919645 0.023529412
1.8825265 8.2934952 -1.6459095 0.027450981
2.1484187 9.4363031 -1.5267493 0.043137256
2.6927531 11.7939 -1.4803607 0.054901961
2.9329386 12.826793 -1.1472604 0.054901961
3.4247985 14.949816 -0.79824382 0.0078431377
2.8210001 12.295013 3.3699067 0.011764706
2.5447161 11.091584 2.6184936 0.05882353
2.5279346 11.01087 2.1884813 0.086274512
3.4531178 14.985159 1.8825487 0.12941177
3.4472151 14.936747 1.3393991 0.1254902
4.335104 18.746744 1.0080087 0.015686275
4.7658362 20.585142 0.36966994 0.0039215689
1.3213984 5.7662611 -1.5745518 0.043137256
1.5529839 6.7552872 -1.5919724 0.023529412
1.9114678 8.2867966 -1.6459192 0.023529412
2.1802194 9.4238625 -1.5259782 0.027450981
2.732779 11.779519 -1.4797654 0.06666667
2.9879119 12.860051 -1.1511949 0.062745102
7.4798484 32.03138 -1.7143514 0.011764706
2.8616917 12.27562 3.3673055 0.0078431377
2.50986 10.769538 2.5442863 0.062745102
2.8989635 12.416164 2.4706869 0.011764706
3.2617648 13.948651 2.2621684 0.031372551
3.5008597 14.953619 1.8800963 0.11372549
3.4936135 14.900311 1.3372015 0.13333334
3.4897168 14.872918 0.8000102 0.12941177
3.496428 14.890467 0.26751289 0.1254902
1.3415208 5.7615376 -1.5745586 0.043137256
1.5754354 6.745008 -1.5908557 0.023529412
1.9403811 8.2799988 -1.6459289 0.023529412
2.2119648 9.4113131 -1.5252073 0.027450981
2.7727318 11.765005 -1.4791701 0.074509807
3.0350842 12.85916 -1.152081 0.05882353
3.5094423 14.842812 -0.79384917 0.16470589
3.510675 14.835737 -0.2644476 0.14117648
0 0 0 0
2.5474427 10.76064 2.5442736 0.054901961
3.5660467 15.01725 2.9922016 0.047058824
2.6559947 11.199273 1.8166637 0.019607844
2.9122505 12.262453 1.5422341 0.027450981
3.5444493 14.883108 1.3367482 0.094117649
3.5334685 14.826582 0.7981593 0.062745102
3.5402174 14.844069 0.26688299 0.13725491
1.3628978 5.7567687 -1.5746014 0.039215688
1.6002401 6.739418 -1.5909027 0.023529412
1.9693975 8.2683525 -1.6450284 0.027450981
2.2449121 9.3986845 -1.5244833 0.031372551
2.8150516 11.755206 -1.4792379 0.06666667
3.5484114 14.772188 -0.79080278 0.14901961
3.5578048 14.799059 -0.26409289 0.19607843
2.7373238 11.392035 3.1292226 0.0078431377
2.6320887 10.941064 2.5891757 0.039215688
2.6686053 11.0838 2.2084131 0.019607844
2.6799748 11.122725 1.8056571 0.019607844
2.9527321 12.237722 1.5403383 0.015686275
3.5850215 14.819609 0.79834211 0.062745102
3.5896993 14.817016 0.26654056 0.11372549
1.3818394 5.7472134 -1.5733147 0.039215688
1.6226029 6.7289867 -1.5897857 0.023529412
1.9970856 8.256588 -1.6440835 0.023529412
2.2748957 9.3863239 -1.5237112 0.027450981
2.8540196 11.745739 -1.4792501 0.078431375
3.1392086 12.90098 -1.1578289 0.05882353
3.5940123 14.735392 -0.78951603 0.21960784
3.6094465 14.786479 -0.26410913 0.16078432
2.7885973 11.429247 3.1421447 0.031372551
2.705349 11.074826 2.2084014 0.11764706
3.5988996 14.695803 2.3894513 0.011764706
3.0489075 12.444103 1.5677166 0.031372551
5.0025525 20.352108 1.8319522 0.0078431377
3.6510923 14.865108 0.80146873 0.047058824
3.6412158 14.814672 0.26670006 0.078431375
1.4008915 5.7425313 -1.5733207 0.043137256
1.6449095 6.7235012 -1.5897927 0.023529412
2.0232756 8.2450876 -1.6431383 0.023529412
2.3076496 9.3782539 -1.5237215 0.027450981
2.8950062 11.735633 -1.4792631 0.082352944
3.1914289 12.918878 -1.1604563 0.070588239
3.6440644 14.72817 -0.789792 0.17647059
0 0 0 0
2.7336454 11.031484 2.6150072 0.023529412
2.9699781 11.970022 2.3895361 0.015686275
4.742332 19.052612 3.1021891 0.054901961
3.0985892 12.467562 1.5719645 0.054901961
5.0687308 20.315128 1.8301859 0.062745102
4.4969187 18.019726 0.97273451 0.062745102
4.8216043 19.301695 0.34786665 0.015686275
1.4197544 5.7328501 -1.5720339 0.043137256
1.668368 6.7176476 -1.5898001 0.023529412
2.049648 8.228385 -1.6412396 0.023529412
2.3403749 9.3700695 -1.5237318 0.031372551
2.9359512 11.725386 -1.4792759 0.074509807
3.2657511 13.023499 -1.1709241 0.05882353
4.9040771 19.487175 -0.34900987 0.039215688
0 0 0 0
2.7673497 11.002916 2.6104984 0.027450981
4.7436032 18.791693 3.7586057 0.082352944
2.9170122 11.577819 1.884555 0.031372551
3.1506357 12.490273 1.5762116 0.011764706
5.5187945 21.788919 1.9648852 0.054901961
4.5659428 18.028046 0.97402412 0.090196081
4.9247193 19.425177 0.35038221 0.015686275
1.4397565 5.7277889 -1.5720402 0.047058824
1.6918094 6.7117119 -1.5898075 0.023529412
2.0759337 8.2115974 -1.6393412 0.027450981
2.3730667 9.3617735 -1.5237422 0.031372551
2.9768662 11.714994 -1.4792888 0.090196081
3.3136597 13.021602 -1.1718096 0.05882353
3.7653861 14.774787 -0.79373336 0.047058824
4.9981494 19.57156 -0.3508594 0.043137256
2.8965476 11.362304 3.1317599 0.039215688
2.8021073 10.978966 2.6071141 0.039215688
2.9214382 11.435477 2.2865434 0.023529412
3.7390621 14.604497 2.380806 0.054901961
3.2858174 12.834773 1.6212409 0.062745102
5.5338392 21.548559 1.9448068 0.035294119
5.0000029 19.43684 0.3508856 0.023529412
1.4597439 5.7226567 -1.5720465 0.047058824
1.7152301 6.7056932 -1.5898149 0.023529412
2.103353 8.1994791 -1.6383964 0.027450981
2.4040997 9.3537846 -1.523752 0.031372551
3.0157001 11.70499 -1.4793011 0.074509807
3.3881061 13.131005 -1.1827126 0.050980393
8.1265459 31.342249 -1.6878726 0.10588235
5.0727243 19.578117 -0.3513163 0.062745102
0 0 0 0
3.8237321 14.750642 3.5086348 0.011764706
3.0150681 11.639391 2.3294339 0.45490196
3.106719 11.982857 1.9540846 0.043137256
3.3142951 12.760736 1.6133138 0.043137256
5.2108817 20.00625 1.8070127 0.015686275
9.7200365 37.202946 0.67247689 0.023529412
1.4787143 5.7177167 -1.5720526 0.043137256
1.7362229 6.695188 -1.5886973 0.023529412
2.1280413 8.1828957 -1.6364973 0.039215688
2.4367392 9.3452644 -1.5237623 0.035294119
3.0565372 11.694323 -1.4793141 0.074509807
3.4250488 13.08531 -1.1796781 0.047058824
3.8785944 14.796961 -0.79637128 0.011764706
13.583927 51.596344 -0.92828965 0.039215688
3.002939 11.444406 3.1601908 0.043137256
4.2312427 16.084276 3.830111 0.074509807
2.9803865 11.34402 2.2722178 0.0078431377
3.0651438 11.656774 1.9024919 0.070588239
3.3388026 12.682448 1.6047789 0.06666667
5.2513266 19.877136 1.7969631 0.015686275
9.9303265 37.496658 2.0330009 0.015686275
9.7459068 36.777351 0.66535145 0.011764706
1.4986664 5.7124491 -1.5720589 0.043137256
1.759582 6.6890163 -1.5887047 0.023529412
2.1553321 8.1706028 -1.6355524 0.039215688
2.4693439 9.3366308 -1.5237726 0.031372551
3.0986221 11.688304 -1.4799361 0.078431375
3.4424407 12.967329 -1.1701096 0.047058824
3.8863945 14.619246 -0.78752679 0.023529412
13.552172 50.756489 -0.91406786 0.0078431377
0 0 0 0
3.1224554 11.707944 1.9126385 0.043137256
3.3727598 12.632303 1.5998955 0.015686275
5.9027691 22.023144 1.9931283 0.031372551
4.8893385 18.24276 0.98913413 0.05882353
5.2713809 19.649618 0.35563228 0.098039217
1.5185968 5.7071118 -1.5720652 0.043137256
1.7816541 6.6780581 -1.5875876 0.023529412
2.1825593 8.1582203 -1.6346077 0.043137256
2.5019228 9.3278828 -1.523783 0.031372551
3.141999 11.686927 -1.4811673 0.074509807
3.2143269 11.945506 -1.0786505 0.019607844
3.2349 12.01266 -0.64733106 0.054901961
3.2423615 12.031364 -0.2161579 0.043137256
0 0 0 0
2.9046717 10.760366 2.5643506 0.062745102
3.1793027 11.763273 2.3608565 0.0078431377
3.1477487 11.639722 1.9032476 0.019607844
4.2239761 15.584436 1.976647 0.035294119
3.2619967 12.035699 1.0889099 0.019607844
3.2654049 12.040419 0.65287602 0.027450981
3.2568915 12.00149 0.21726498 0.019607844
1.5385116 5.701705 -1.5720716 0.043137256
1.8049531 6.6717277 -1.587595 0.023529412
2.2097306 8.1457462 -1.6336628 0.047058824
2.5331609 9.3142595 -1.5230112 0.031372551
3.1867108 11.690176 -1.4830078 0.062745102
3.2612827 11.953354 -1.0804061 0.098039217
3.2675519 11.967523 -0.64552009 0.10588235
3.2763865 11.990982 -0.21564877 0.11372549
3.2111001 11.733431 3.2493997 0.12941177
2.9460969 10.764187 2.5677111 0.050980393
3.2164364 11.73784 2.3579834 0.082352944
3.201499 11.676202 1.9110497 0.011764706
4.2691031 15.536044 1.9723691 0.011764706
3.3000133 12.009768 1.0875887 0.12941177
3.3007567 12.004817 0.65155339 0.12941177
3.2974355 11.98516 0.2171642 0.062745102
1.5571146 5.6915741 -1.5707848 0.043137256
1.8269318 6.6606202 -1.5864779 0.023529412
2.2368419 8.1331835 -1.6327182 0.043137256
2.5656614 9.3052883 -1.5230216 0.031372551
3.2301602 11.688472 -1.4842391 0.078431375
3.3029852 11.941828 -1.0804193 0.035294119
3.3093109 11.955973 -0.64553338 0.047058824
3.3182271 11.979402 -0.21566209 0.082352944
3.231262 11.647652 3.2286913 0.062745102
3.0033166 10.824156 2.5845604 0.090196081
3.1199956 11.234853 2.2588205 0.039215688
4.0335951 14.494759 2.3760211 0.10196079
5.2286882 18.756519 2.3844125 0.015686275
3.3378818 11.98372 1.0862675 0.12156863
3.3412981 11.988345 0.65127814 0.1254902
3.3365555 11.96388 0.21697602 0.039215688
1.5769749 5.6860328 -1.5707912 0.039215688
1.8501731 6.6541305 -1.5864853 0.023529412
2.2638884 8.1205292 -1.6317734 0.047058824
2.5967917 9.2914505 -1.5222501 0.035294119
3.2749767 11.691385 -1.4860796 0.098039217
3.3578098 11.968305 -0.64684981 0.011764706
3.3640969 11.98211 -0.21593671 0.015686275
3.2561297 11.580466 3.2131577 0.011764706
3.0808892 10.954176 2.6182704 0.035294119
3.1939759 11.34661 2.2835953 0.094117649
4.0200062 14.245249 1.8116503 0.0078431377
3.3796973 11.971925 1.0862541 0.043137256
3.3844879 11.981343 0.65152669 0.043137256
3.3837636 11.971326 0.21731241 0.011764706
1.5954937 5.675777 -1.5695045 0.043137256
1.8733883 6.6475611 -1.5864927 0.023529412
2.2908781 8.1077862 -1.6308284 0.043137256
2.6292076 9.282259 -1.5222603 0.035294119
3.3184969 11.689355 -1.487311 0.078431375
3.7202423 13.086912 -1.1867347 0.11372549
8.7993193 30.837759 -1.6719543 0.17254902
14.697278 51.425083 -0.93089706 0.011764706
3.2619295 11.448251 3.1795158 0.0078431377
3.0922472 10.849624 2.5957768 0.05882353
3.2999177 11.566496 2.330297 0.015686275
4.0978866 14.337951 2.3548889 0.054901961
4.14784 14.502937 1.8463273 0.015686275
5.0755959 17.708878 1.6098105 0.050980393
5.2594781 18.336641 0.99898309 0.043137256
6.0411515 21.038675 0.38253856 0.062745102
1.6152956 5.6701016 -1.5695108 0.043137256
1.8965838 6.6409097 -1.5865 0.023529412
2.3178027 8.0949526 -1.6298836 0.039215688
2.6629679 9.2776966 -1.5230527 0.035294119
3.3620429 11.687161 -1.4885424 0.070588239
3.7603569 13.05464 -1.1850067 0.054901961
8.8999681 30.782801 -1.6706853 0.098039217
21.171101 73.080803 -1.3247266 0.015686275
3.3153481 11.483109 3.1924374 0.011764706
3.4142685 11.816492 2.8306942 0.023529412
3.2868209 11.371032 2.2931035 0.14509805
4.109283 14.190719 2.3329918 0.039215688
5.441474 18.757713 2.3916538 0.015686275
5.1234474 17.643164 1.6054314 0.05882353
5.3444319 18.390001 1.0028903 0.11764706
6.4002872 21.996387 0.40034935 0.011764706
1.633726 5.6597214 -1.5682241 0.043137256
1.9183855 6.6295028 -1.5853829 0.023529412
2.3446698 8.0820312 -1.6289388 0.043137256
2.6953351 9.2682753 -1.5230631 0.035294119
3.4056075 11.684809 -1.4897739 0.070588239
3.7904844 12.988788 -1.1802295 0.047058824
4.2691407 14.610468 -0.7925927 0.011764706
0 0 0 0
3.3595068 11.485298 3.1963046 0.10980392
3.1390252 10.729489 2.5721471 0.094117649
3.3223376 11.345297 2.290231 0.015686275
4.1518173 14.152534 2.3290684 0.039215688
5.2047582 17.691984 1.6115148 0.031372551
5.4085889 18.371168 1.0028697 0.062745102
6.4713674 21.954668 0.39997512 0.023529412
1.6534717 5.6539135 -1.5682304 0.043137256
1.9415177 6.622694 -1.5853903 0.023529412
2.3714755 8.0690193 -1.6279938 0.047058824
2.729079 9.2634735 -1.5238554 0.035294119
3.4492037 11.682294 -1.4910053 0.06666667
3.8116791 12.894238 -1.1728384 0.047058824
4.3329277 14.638479 -0.79495496 0.027450981
0 0 0 0
0 0 0 0
3.5398438 11.936969 2.8655131 0.082352944
3.4587526 11.658095 2.3559983 0.043137256
4.2633562 14.346105 2.3634369 0.023529412
4.6120119 15.504641 1.9801773 0.039215688
5.9287682 19.88788 1.8137659 0.039215688
5.4712577 18.347322 1.0025872 0.039215688
8.5658245 28.670151 0.5229395 0.019607844
1.6731999 5.648036 -1.5682367 0.043137256
1.9632263 6.6111379 -1.5842731 0.023529412
2.3996258 8.0606213 -1.6280029 0.047058824
2.7614014 9.2538176 -1.5238659 0.047058824
3.494247 11.684369 -1.492846 0.070588239
3.9026027 13.033412 -1.1867932 0.070588239
9.1656837 30.501236 -1.6606227 0.11372549
0 0 0 0
3.4326339 11.438313 3.1898119 0.070588239
3.2758346 10.912395 2.6215813 0.054901961
3.5065303 11.669376 2.3607521 0.13725491
3.6187582 12.03365 1.9836339 0.023529412
4.658917 15.464631 1.9771168 0.023529412
6.0631404 20.081512 1.8333602 0.019607844
8.7649908 28.984051 1.5864358 0.039215688
6.4822984 21.439976 0.39136004 0.0078431377
1.6929075 5.6420889 -1.568243 0.043137256
1.9862907 6.6041746 -1.5842806 0.023529412
2.4277508 8.052125 -1.6280119 0.047058824
2.7936845 9.2440529 -1.5238763 0.035294119
3.5379074 11.681524 -1.4940776 0.070588239
3.9756677 13.110166 -1.1950849 0.062745102
9.2662621 30.449884 -1.6596143 0.10196079
16.327951 53.570297 -0.97509259 0.0078431377
3.4570105 11.375389 3.1755717 0.023529412
3.5418825 11.646268 2.8014159 0.035294119
3.6520658 11.992547 1.9789317 0.05882353
6.371551 20.862406 2.6715348 0.062745102
5.912643 19.341101 1.7675141 0.13333334
6.6436906 21.699108 0.39649269 0.011764706
1.7111721 5.6314583 -1.5669562 0.043137256
2.0093341 6.5971289 -1.584288 0.023529412
2.4543982 8.0388393 -1.6270671 0.043137256
2.8259387 9.2341728 -1.5238867 0.035294119
3.5859778 11.692743 -1.4971367 0.070588239
4.0067167 13.048544 -1.1907432 0.06666667
9.3666105 30.398195 -1.6586058 0.098039217
0 0 0 0
0 0 0 0
3.5421693 11.503453 2.7699296 0.019607844
4.3853745 14.218417 2.8840992 0.0078431377
3.6734383 11.913618 1.967978 0.0078431377
6.4046459 20.711988 2.6550789 0.039215688
5.0228744 16.237827 1.4850209 0.011764706
6.8158069 21.998516 1.2062168 0.050980393
6.7713366 21.8428 0.39952716 0.023529412
1.7308215 5.6253786 -1.5669625 0.043137256
2.0323491 6.5900044 -1.5842954 0.023529412
2.4824467 8.0301514 -1.627076 0.027450981
2.8566821 9.2194672 -1.5231149 0.031372551
3.6386003 11.717983 -1.5020236 0.06666667
4.0537295 13.039161 -1.1911936 0.043137256
9.4726543 30.365246 -1.6586399 0.12156863
4.1673536 13.364944 3.7407527 0.015686275
3.5487833 11.384027 2.7440641 0.14117648
5.7761121 18.478825 3.7544611 0.015686275
3.6839533 11.801702 1.9515543 0.031372551
6.4441924 20.585276 2.6416662 0.019607844
5.1138887 16.329414 1.4950284 0.050980393
6.8131413 21.72208 1.1923162 0.031372551
6.7199731 21.41363 0.39207435 0.011764706
1.7504467 5.6192327 -1.5669688 0.043137256
2.0538781 6.5781517 -1.583178 0.023529412
2.5089886 8.0166845 -1.6261312 0.019607844
2.8873627 9.2046585 -1.5223433 0.031372551
3.6899538 11.738263 -1.5063013 0.06666667
4.0796928 12.963122 -1.1855447 0.043137256
9.578599 30.331923 -1.6586741 0.10980392
18.868048 59.649174 -1.0895957 0.015686275
4.2095995 13.33644 3.7368574 0.05882353
5.8420625 18.463163 3.7553933 0.086274512
3.7355921 11.821652 1.9570112 0.011764706
4.7315826 14.948485 1.9192301 0.054901961
5.1225219 16.159513 1.4810612 0.027450981
6.8889313 21.698095 1.1922917 0.011764706
6.761301 21.285177 0.39012772 0.015686275
1.7700533 5.6130161 -1.5669752 0.043137256
2.0768304 6.5708709 -1.5831856 0.023529412
2.5369556 8.0078068 -1.6261402 0.054901961
2.9179747 9.1897478 -1.5215715 0.031372551
3.7429991 11.763056 -1.5111884 0.062745102
4.12644 12.953475 -1.1859949 0.035294119
9.6372118 30.150818 -1.6506273 0.094117649
14.141769 44.186729 -0.80784762 0.023529412
4.2827024 13.404375 3.760123 0.011764706
3.6192381 11.33101 2.7372944 0.13333334
3.9018698 12.204203 2.4827096 0.098039217
4.1229997 12.885122 2.1359448 0.035294119
4.7548552 14.842048 1.9076499 0.054901961
5.1453104 16.037159 1.4714532 0.011764706
6.8907828 21.432669 0.39324936 0.015686275
1.7881546 5.6021357 -1.5656884 0.047058824
2.0982563 6.5588746 -1.5820683 0.023529412
2.5633864 7.9941611 -1.6251955 0.039215688
2.9500332 9.1794357 -1.5215819 0.043137256
3.7886264 11.764011 -1.5130293 0.06666667
4.2253604 13.10477 -1.2012578 0.047058824
9.7208357 30.050425 -1.6470115 0.098039217
14.252748 44.003868 -0.80545747 0.031372551
4.3622923 13.490338 3.7885621 0.0078431377
3.6994338 11.443342 2.7676301 0.05882353
3.9414163 12.181106 2.4807892 0.011764706
6.1513162 18.96629 3.1502173 0.12156863
4.8112493 14.839449 1.9094589 0.12941177
5.1950822 16.00009 1.4696914 0.05882353
6.8235168 20.984745 1.1555917 0.14117648
6.8756189 21.132759 0.3881574 0.011764706
1.8076982 5.5957885 -1.5656947 0.047058824
2.1196275 6.5468078 -1.5809512 0.019607844
2.5897489 7.9804287 -1.6242507 0.035294119
2.9805245 9.1643181 -1.5208104 0.054901961
3.8312163 11.755359 -1.5136518 0.090196081
4.2245302 12.947877 -1.1882026 0.054901961
9.7929993 29.916603 -1.6415709 0.090196081
0 0 0 0
0 0 0 0
3.763715 11.504342 2.7856014 0.070588239
4.0023212 12.223155 2.4922149 0.031372551
6.226757 18.972776 3.1548843 0.050980393
4.74191 14.45483 1.8619722 0.13725491
5.2009864 15.830418 1.455725 0.12941177
6.9374123 21.084011 1.1623744 0.074509807
6.7973099 20.648083 0.37965867 0.047058824
1.8269783 5.5848126 -1.5644346 0.047058824
2.1437373 6.5393248 -1.5809866 0.023529412
2.6188633 7.9712944 -1.6242896 0.039215688
3.013762 9.1538143 -1.5208523 0.043137256
3.8766131 11.751293 -1.5149188 0.10196079
4.2364674 12.828999 -1.178669 0.050980393
9.8718796 29.801636 -1.6372327 0.098039217
0 0 0 0
0 0 0 0
3.7911942 11.449522 2.7754378 0.074509807
4.0554662 12.237041 2.4978855 0.13333334
4.7182188 14.212182 1.8327059 0.06666667
5.2688475 15.855596 1.4595907 0.027450981
6.8299284 20.525654 1.1327238 0.039215688
9.175108 27.523378 0.5066939 0.054901961
1.8464612 5.5783353 -1.5644406 0.043137256
2.1650074 6.5271139 -1.5798688 0.023529412
2.645117 7.9573827 -1.6233441 0.039215688
3.0456703 9.1483889 -1.5216435 0.047058824
3.9171388 11.743014 -1.5155399 0.12941177
4.259984 12.758147 -1.1734537 0.062745102
9.9551926 29.705389 -1.6338751 0.090196081
0 0 0 0
0 0 0 0
3.8338051 11.45068 2.7787981 0.11764706
4.0913281 12.209509 2.495013 0.078431375
4.3582144 12.99533 2.1639826 0.094117649
4.7440205 14.125019 1.823562 0.031372551
7.1838441 21.349577 1.9686694 0.039215688
7.0644097 20.984179 1.1594026 0.050980393
9.2695303 27.502214 0.50684077 0.05882353
1.8649509 5.5721183 -1.5644463 0.047058824
2.1866417 6.519835 -1.5798753 0.023529412
2.6714916 7.9485035 -1.6233521 0.039215688
3.0775886 9.1376352 -1.5216532 0.039215688
3.9612966 11.738602 -1.516771 0.14117648
4.291688 12.7054 -1.1699818 0.05882353
10.011917 29.549217 -1.6271265 0.078431375
18.100679 53.345963 -0.98146999 0.011764706
4.5801682 13.520166 3.814333 0.011764706
3.8502128 11.367981 2.7619259 0.031372551
4.1260114 12.171861 2.4902339 0.043137256
4.3764806 12.900503 2.1506848 0.047058824
4.7812304 14.080965 1.8198965 0.031372551
5.07377 14.922629 1.3767427 0.015686275
6.9391785 20.378113 1.1271832 0.019607844
7.1109977 20.870146 0.38496155 0.0078431377
1.8843921 5.5655069 -1.5644522 0.047058824
2.2078123 6.5074859 -1.5787576 0.023529412
2.6976299 7.9344201 -1.6224066 0.039215688
3.1094694 9.1267681 -1.521663 0.031372551
4.005465 11.734027 -1.5180019 0.11764706
4.3246999 12.657294 -1.1669456 0.050980393
10.074472 29.395954 -1.6206399 0.086274512
16.186525 47.169083 -0.86880445 0.023529412
4.5110683 13.166068 3.718612 0.027450981
3.8835275 11.335983 2.7574182 0.14901961
4.1237268 12.027378 2.4635293 0.06666667
4.4214907 12.885083 2.1506712 0.086274512
4.8190279 14.031284 1.8156215 0.027450981
5.1485858 14.97068 1.3828287 0.086274512
9.4843702 27.518131 1.5245138 0.062745102
7.1789126 20.830956 0.38467723 0.011764706
1.9022287 5.554265 -1.5631649 0.050980393
2.2305133 6.4996734 -1.5787646 0.019607844
2.7237067 7.9202499 -1.6214612 0.039215688
3.1413069 9.1157932 -1.5216727 0.023529412
4.0496559 11.729283 -1.5192331 0.082352944
4.3835568 12.684404 -1.1708802 0.06666667
10.147531 29.275642 -1.6159782 0.074509807
16.408518 47.277508 -0.87190628 0.015686275
0 0 0 0
3.9503098 11.400515 2.7765138 0.094117649
4.1430879 11.947955 2.4501708 0.043137256
4.505444 12.981433 2.1694107 0.06666667
0 0 0 0
5.3518295 15.385203 1.4229113 0.0078431377
7.2680802 20.852898 0.38552836 0.019607844
1.9216074 5.5475235 -1.5631709 0.043137256
2.2531903 6.4917808 -1.5787716 0.019607844
2.7497137 7.9059958 -1.6205156 0.039215688
3.1731112 9.1047058 -1.5216825 0.023529412
4.0938568 11.724376 -1.5204641 0.06666667
4.4426498 12.711259 -1.1748151 0.054901961
10.214924 29.141039 -1.610534 0.074509807
0 0 0 0
0 0 0 0
4.0143538 11.455525 2.7933612 0.090196081
4.1570468 11.854656 2.4339526 0.078431375
4.5573015 12.984194 2.1725223 0.062745102
4.8739691 13.875481 1.7997692 0.11764706
7.1164899 20.213612 1.8726915 0.035294119
7.5695534 21.485884 1.1928173 0.035294119
7.3474836 20.846193 0.38585541 0.011764706
1.9409626 5.5407152 -1.5631768 0.043137256
2.2742109 6.4792166 -1.5776538 0.019607844
2.7756584 7.891655 -1.61957 0.035294119
3.2032218 9.0888538 -1.5209103 0.023529412
4.1380792 11.719301 -1.5216951 0.082352944
4.4853311 12.690912 -1.1743931 0.050980393
10.268122 28.968687 -1.6030039 0.070588239
25.346203 71.388969 -1.3204467 0.011764706
0 0 0 0
4.0494142 11.427612 2.7899768 0.050980393
4.1671176 11.752157 2.4158282 0.035294119
4.5992804 12.958841 2.1709456 0.078431375
4.7623758 13.409558 1.7413338 0.062745102
5.2196908 14.676504 1.3605527 0.0078431377
7.5672598 21.24296 1.1807539 0.047058824
7.4168482 20.810934 0.38565838 0.019607844
1.9586647 5.5292921 -1.5618895 0.043137256
2.2968166 6.4711719 -1.5776608 0.019607844
2.801537 7.8772292 -1.6186244 0.035294119
3.2332649 9.0729008 -1.5201379 0.019607844
4.1806407 11.709389 -1.5223171 0.074509807
4.5329657 12.684491 -1.1752781 0.031372551
10.318567 28.791613 -1.5952125 0.078431375
25.385677 70.716583 -1.3097105 0.023529412
0 0 0 0
4.0628862 11.339997 2.771981 0.023529412
4.203125 11.723623 2.4129555 0.054901961
4.6126871 12.854364 2.1560855 0.06666667
4.7990623 13.364775 1.737668 0.06666667
5.5380149 15.398403 1.4293996 0.015686275
7.4022946 20.554153 1.1438258 0.078431375
7.3620596 20.432215 0.37908685 0.0078431377
1.9779558 5.5223541 -1.5618955 0.047058824
2.3193934 6.4630475 -1.5776677 0.023529412
2.8273449 7.8627214 -1.617679 0.035294119
3.2649188 9.061492 -1.5201477 0.019607844
4.2248693 11.703991 -1.5235484 0.06666667
4.573822 12.659158 -1.1744202 0.043137256
10.371311 28.62393 -1.5879425 0.078431375
25.642588 70.655678 -1.3103096 0.039215688
4.1074424 11.339421 2.775341 0.13725491
4.1869402 11.552003 2.3805327 0.035294119
4.625422 12.749954 2.1412258 0.054901961
4.8473821 13.352542 1.7382623 0.039215688
5.3092318 14.612434 1.3579071 0.05882353
7.4584389 20.496597 1.1419725 0.05882353
1.9955617 5.5108132 -1.5606081 0.043137256
2.3402658 6.4502707 -1.57655 0.023529412
2.85309 7.8481283 -1.6167336 0.035294119
3.2949464 9.0505533 -1.5201569 0.023529412
4.2653666 11.694513 -1.5241694 0.054901961
4.6586313 12.760776 -1.1853263 0.050980393
10.419556 28.446863 -1.5801507 0.06666667
17.713562 48.29763 -0.89657772 0.0078431377
5.098372 13.926006 3.9629626 0.0078431377
4.1349392 11.29824 2.7685854 0.019607844
4.2353945 11.565635 2.3862405 0.062745102
4.6625633 12.720582 2.1388688 0.06666667
4.8991137 13.349446 1.7400736 0.015686275
5.9803238 16.276258 1.5147898 0.035294119
7.5338516 20.470615 0.380703 0.039215688
2.0138266 5.5041022 -1.5606138 0.043137256
2.361644 6.4424109 -1.5765566 0.023529412
2.8773994 7.8339562 -1.6157876 0.035294119
3.3265219 9.0389299 -1.5201666 0.023529412
4.307889 11.684138 -1.5247915 0.031372551
4.6841087 12.692995 -1.180547 0.043137256
10.473916 28.304407 -1.5741823 0.070588239
17.866676 48.219814 -0.89627832 0.05882353
5.1402245 13.889955 3.9577744 0.074509807
5.1077142 13.795487 3.3867464 0.054901961
4.5186214 12.204007 2.5215874 0.031372551
5.7084279 15.388892 2.0090284 0.015686275
6.0318832 16.24122 1.5134649 0.10196079
6.0493202 16.279835 0.90899295 0.0078431377
7.5511184 20.298916 0.37797436 0.054901961
2.0330296 5.4969716 -1.5606197 0.043137256
2.3841202 6.4340611 -1.5765635 0.023529412
2.9030082 7.819201 -1.6148419 0.035294119
3.3580565 9.0271959 -1.5201764 0.019607844
4.3486457 11.668965 -1.524804 0.031372551
4.7179108 12.648511 -1.1779463 0.054901961
10.525358 28.141357 -1.5671722 0.082352944
7.537189 20.154688 -0.37458551 0.086274512
5.1666183 13.81308 3.9409466 0.019607844
5.1506987 13.763831 3.3833597 0.082352944
